528.000000 -1376.000000 64.000000
527.886345 -1377.763377 63.063206
527.772690 -1379.526754 62.126412
527.659034 -1381.290132 61.189618
527.545379 -1383.053509 60.252823
527.431724 -1384.816886 59.316029
527.318069 -1386.580263 58.379235
527.204414 -1388.343641 57.442441
527.090759 -1390.107018 56.505647
526.977103 -1391.870395 55.568853
526.863448 -1393.633772 54.632059
526.749793 -1395.397149 53.695264
526.636138 -1397.160527 52.758470
526.522483 -1398.923904 51.821676
526.408828 -1400.687281 50.884882
526.295172 -1402.450658 49.948088
526.181517 -1404.214036 49.011294
526.067862 -1405.977413 48.074499
525.954207 -1407.740790 47.137705
525.840552 -1409.504167 46.200911
525.726897 -1411.267544 45.264117
525.613241 -1413.030922 44.327323
525.499586 -1414.794299 43.390529
525.385931 -1416.557676 42.453735
525.272276 -1418.321053 41.516940
525.158621 -1420.084431 40.580146
525.044966 -1421.847808 39.643352
524.931310 -1423.611185 38.706558
524.817655 -1425.374562 37.769764
524.704000 -1427.137939 36.832970
524.590345 -1428.901317 35.896176
524.476690 -1430.664694 34.959381
524.363034 -1432.428071 34.022587
524.249379 -1434.191448 33.085793
524.135724 -1435.954826 32.148999
524.022069 -1437.718203 31.212205
523.875000 -1440.000000 30.000000
521.889505 -1440.240438 30.000000
519.904010 -1440.480877 30.000000
517.918516 -1440.721315 30.000000
515.933021 -1440.961753 30.000000
513.947526 -1441.202192 30.000000
511.962031 -1441.442630 30.000000
509.976537 -1441.683068 30.000000
507.991042 -1441.923507 30.000000
506.005547 -1442.163945 30.000000
504.020052 -1442.404383 30.000000
502.034558 -1442.644822 30.000000
500.049063 -1442.885260 30.000000
498.063568 -1443.125698 30.000000
496.078073 -1443.366137 30.000000
494.092579 -1443.606575 30.000000
492.107084 -1443.847013 30.000000
490.121589 -1444.087452 30.000000
488.136094 -1444.327890 30.000000
486.150600 -1444.568329 30.000000
484.165105 -1444.808767 30.000000
482.179610 -1445.049205 30.000000
480.194115 -1445.289644 30.000000
478.208621 -1445.530082 30.000000
476.223126 -1445.770520 30.000000
474.237631 -1446.010959 30.000000
472.252136 -1446.251397 30.000000
470.266642 -1446.491835 30.000000
468.281147 -1446.732274 30.000000
466.295652 -1446.972712 30.000000
464.310157 -1447.213150 30.000000
462.324663 -1447.453589 30.000000
460.339168 -1447.694027 30.000000
458.353673 -1447.934465 30.000000
456.368178 -1448.174904 30.000000
454.382684 -1448.415342 30.000000
452.397189 -1448.655780 30.000000
450.411694 -1448.896219 30.000000
448.426199 -1449.136657 30.000000
446.440705 -1449.377095 30.000000
444.455210 -1449.617534 30.000000
442.469715 -1449.857972 30.000000
440.484220 -1450.098410 30.000000
438.498726 -1450.338849 30.000000
436.513231 -1450.579287 30.000000
434.527736 -1450.819725 30.000000
432.542241 -1451.060164 30.000000
430.556747 -1451.300602 30.000000
428.571252 -1451.541040 30.000000
426.585757 -1451.781479 30.000000
424.600262 -1452.021917 30.000000
422.614768 -1452.262355 30.000000
420.629273 -1452.502794 30.000000
418.643778 -1452.743232 30.000000
416.658283 -1452.983670 30.000000
414.672789 -1453.224109 30.000000
412.687294 -1453.464547 30.000000
410.701799 -1453.704986 30.000000
408.716304 -1453.945424 30.000000
406.730810 -1454.185862 30.000000
404.745315 -1454.426301 30.000000
402.759820 -1454.666739 30.000000
400.774325 -1454.907177 30.000000
398.788831 -1455.147616 30.000000
396.803336 -1455.388054 30.000000
394.817841 -1455.628492 30.000000
391.750000 -1456.000000 30.000000
389.750000 -1456.000000 30.000000
387.750000 -1456.000000 30.000000
385.750000 -1456.000000 30.000000
383.750000 -1456.000000 30.000000
381.750000 -1456.000000 30.000000
379.750000 -1456.000000 30.000000
377.750000 -1456.000000 30.000000
375.750000 -1456.000000 30.000000
373.750000 -1456.000000 30.000000
371.750000 -1456.000000 30.000000
369.750000 -1456.000000 30.000000
367.750000 -1456.000000 30.000000
365.750000 -1456.000000 30.000000
363.750000 -1456.000000 30.000000
361.750000 -1456.000000 30.000000
359.750000 -1456.000000 30.000000
357.750000 -1456.000000 30.000000
355.750000 -1456.000000 30.000000
353.750000 -1456.000000 30.000000
351.750000 -1456.000000 30.000000
349.750000 -1456.000000 30.000000
347.750000 -1456.000000 30.000000
345.750000 -1456.000000 30.000000
343.750000 -1456.000000 30.000000
341.750000 -1456.000000 30.000000
339.750000 -1456.000000 30.000000
337.750000 -1456.000000 30.000000
335.750000 -1456.000000 30.000000
333.750000 -1456.000000 30.000000
331.750000 -1456.000000 30.000000
329.750000 -1456.000000 30.000000
327.750000 -1456.000000 30.000000
325.750000 -1456.000000 30.000000
323.750000 -1456.000000 30.000000
321.750000 -1456.000000 30.000000
319.750000 -1456.000000 30.000000
317.750000 -1456.000000 30.000000
315.750000 -1456.000000 30.000000
313.750000 -1456.000000 30.000000
311.750000 -1456.000000 30.000000
309.750000 -1456.000000 30.000000
307.750000 -1456.000000 30.000000
305.750000 -1456.000000 30.000000
303.750000 -1456.000000 30.000000
301.750000 -1456.000000 30.000000
299.750000 -1456.000000 30.000000
297.750000 -1456.000000 30.000000
295.750000 -1456.000000 30.000000
293.750000 -1456.000000 30.000000
291.750000 -1456.000000 30.000000
289.750000 -1456.000000 30.000000
287.750000 -1456.000000 30.000000
285.750000 -1456.000000 30.000000
283.750000 -1456.000000 30.000000
281.750000 -1456.000000 30.000000
279.750000 -1456.000000 30.000000
277.750000 -1456.000000 30.000000
275.750000 -1456.000000 30.000000
273.750000 -1456.000000 30.000000
271.750000 -1456.000000 30.000000
269.750000 -1456.000000 30.000000
267.750000 -1456.000000 30.000000
265.750000 -1456.000000 30.000000
263.750000 -1456.000000 30.000000
261.750000 -1456.000000 30.000000
259.750000 -1456.000000 30.000000
257.750000 -1456.000000 30.000000
255.750000 -1456.000000 30.000000
253.750000 -1456.000000 30.000000
251.750000 -1456.000000 30.000000
249.750000 -1456.000000 30.000000
247.750000 -1456.000000 30.000000
245.750000 -1456.000000 30.000000
243.750000 -1456.000000 30.000000
241.750000 -1456.000000 30.000000
239.750000 -1456.000000 30.000000
237.750000 -1456.000000 30.000000
235.750000 -1456.000000 30.000000
233.750000 -1456.000000 30.000000
231.750000 -1456.000000 30.000000
229.750000 -1456.000000 30.000000
227.750000 -1456.000000 30.000000
225.750000 -1456.000000 30.000000
223.750000 -1456.000000 30.000000
221.750000 -1456.000000 30.000000
219.750000 -1456.000000 30.000000
217.750000 -1456.000000 30.000000
215.750000 -1456.000000 30.000000
213.750000 -1456.000000 30.000000
211.750000 -1456.000000 30.000000
209.750000 -1456.000000 30.000000
207.750000 -1456.000000 30.000000
205.750000 -1456.000000 30.000000
203.750000 -1456.000000 30.000000
201.750000 -1456.000000 30.000000
199.750000 -1456.000000 30.000000
197.750000 -1456.000000 30.000000
195.750000 -1456.000000 30.000000
193.750000 -1456.000000 30.000000
191.750000 -1456.000000 30.000000
189.750000 -1456.000000 30.000000
187.750000 -1456.000000 30.000000
185.750000 -1456.000000 30.000000
183.750000 -1456.000000 30.000000
181.750000 -1456.000000 30.000000
179.750000 -1456.000000 30.000000
177.750000 -1456.000000 30.000000
175.750000 -1456.000000 30.000000
173.750000 -1456.000000 30.000000
171.750000 -1456.000000 30.000000
169.750000 -1456.000000 30.000000
167.750000 -1456.000000 30.000000
165.750000 -1456.000000 30.000000
163.750000 -1456.000000 30.000000
161.750000 -1456.000000 30.000000
159.750000 -1456.000000 30.000000
157.750000 -1456.000000 30.000000
155.750000 -1456.000000 30.000000
153.750000 -1456.000000 30.000000
151.750000 -1456.000000 30.000000
149.750000 -1456.000000 30.000000
147.750000 -1456.000000 30.000000
145.750000 -1456.000000 30.000000
143.750000 -1456.000000 30.000000
141.750000 -1456.000000 30.000000
139.750000 -1456.000000 30.000000
137.750000 -1456.000000 30.000000
135.750000 -1456.000000 30.000000
133.750000 -1456.000000 30.000000
131.750000 -1456.000000 30.000000
129.750000 -1456.000000 30.000000
127.750000 -1456.000000 30.000000
125.750000 -1456.000000 30.000000
123.750000 -1456.000000 30.000000
121.750000 -1456.000000 30.000000
119.750000 -1456.000000 30.000000
117.750000 -1456.000000 30.000000
115.750000 -1456.000000 30.000000
113.750000 -1456.000000 30.000000
111.750000 -1456.000000 30.000000
108.000000 -1456.000000 30.000000
106.000000 -1456.000000 30.000000
104.000000 -1456.000000 30.000000
102.000000 -1456.000000 30.000000
100.000000 -1456.000000 30.000000
98.000000 -1456.000000 30.000000
96.000000 -1456.000000 30.000000
94.000000 -1456.000000 30.000000
92.000000 -1456.000000 30.000000
90.000000 -1456.000000 30.000000
88.000000 -1456.000000 30.000000
86.000000 -1456.000000 30.000000
84.000000 -1456.000000 30.000000
82.000000 -1456.000000 30.000000
80.000000 -1456.000000 30.000000
78.000000 -1456.000000 30.000000
76.000000 -1456.000000 30.000000
74.000000 -1456.000000 30.000000
72.000000 -1456.000000 30.000000
70.000000 -1456.000000 30.000000
68.000000 -1456.000000 30.000000
66.000000 -1456.000000 30.000000
64.000000 -1456.000000 30.000000
62.000000 -1456.000000 30.000000
60.000000 -1456.000000 30.000000
58.000000 -1456.000000 30.000000
56.000000 -1456.000000 30.000000
54.000000 -1456.000000 30.000000
52.000000 -1456.000000 30.000000
50.000000 -1456.000000 30.000000
48.000000 -1456.000000 30.000000
46.000000 -1456.000000 30.000000
44.000000 -1456.000000 30.000000
42.000000 -1456.000000 30.000000
40.000000 -1456.000000 30.000000
38.000000 -1456.000000 30.000000
36.000000 -1456.000000 30.000000
34.000000 -1456.000000 30.000000
32.000000 -1456.000000 30.000000
30.000000 -1456.000000 30.000000
28.000000 -1456.000000 30.000000
26.000000 -1456.000000 30.000000
24.000000 -1456.000000 30.000000
22.000000 -1456.000000 30.000000
20.000000 -1456.000000 30.000000
18.000000 -1456.000000 30.000000
16.000000 -1456.000000 30.000000
14.000000 -1456.000000 30.000000
12.000000 -1456.000000 30.000000
10.000000 -1456.000000 30.000000
8.000000 -1456.000000 30.000000
6.000000 -1456.000000 30.000000
4.000000 -1456.000000 30.000000
2.000000 -1456.000000 30.000000
0.000000 -1456.000000 30.000000
-2.000000 -1456.000000 30.000000
-4.000000 -1456.000000 30.000000
-6.000000 -1456.000000 30.000000
-8.000000 -1456.000000 30.000000
-10.000000 -1456.000000 30.000000
-12.000000 -1456.000000 30.000000
-14.000000 -1456.000000 30.000000
-16.000000 -1456.000000 30.000000
-18.000000 -1456.000000 30.000000
-20.000000 -1456.000000 30.000000
-22.000000 -1456.000000 30.000000
-24.000000 -1456.000000 30.000000
-26.000000 -1456.000000 30.000000
-28.000000 -1456.000000 30.000000
-30.000000 -1456.000000 30.000000
-32.000000 -1456.000000 30.000000
-34.000000 -1456.000000 30.000000
-36.000000 -1456.000000 30.000000
-38.000000 -1456.000000 30.000000
-40.000000 -1456.000000 30.000000
-42.000000 -1456.000000 30.000000
-44.000000 -1456.000000 30.000000
-46.000000 -1456.000000 30.000000
-48.000000 -1456.000000 30.000000
-50.000000 -1456.000000 30.000000
-52.000000 -1456.000000 30.000000
-54.000000 -1456.000000 30.000000
-56.000000 -1456.000000 30.000000
-58.000000 -1456.000000 30.000000
-60.000000 -1456.000000 30.000000
-62.000000 -1456.000000 30.000000
-64.000000 -1456.000000 30.000000
-66.000000 -1456.000000 30.000000
-68.000000 -1456.000000 30.000000
-70.000000 -1456.000000 30.000000
-72.000000 -1456.000000 30.000000
-74.000000 -1456.000000 30.000000
-76.000000 -1456.000000 30.000000
-78.000000 -1456.000000 30.000000
-80.000000 -1456.000000 30.000000
-82.000000 -1456.000000 30.000000
-84.000000 -1456.000000 30.000000
-86.000000 -1456.000000 30.000000
-88.000000 -1456.000000 30.000000
-90.000000 -1456.000000 30.000000
-92.000000 -1456.000000 30.000000
-94.000000 -1456.000000 30.000000
-96.000000 -1456.000000 30.000000
-98.000000 -1456.000000 30.000000
-100.000000 -1456.000000 30.000000
-102.000000 -1456.000000 30.000000
-104.000000 -1456.000000 30.000000
-106.000000 -1456.000000 30.000000
-108.000000 -1456.000000 30.000000
-110.000000 -1456.000000 30.000000
-112.000000 -1456.000000 30.000000
-114.000000 -1456.000000 30.000000
-116.000000 -1456.000000 30.000000
-118.000000 -1456.000000 30.000000
-120.000000 -1456.000000 30.000000
-122.000000 -1456.000000 30.000000
-124.000000 -1456.000000 30.000000
-126.000000 -1456.000000 30.000000
-128.000000 -1456.000000 30.000000
-130.000000 -1456.000000 30.000000
-132.000000 -1456.000000 30.000000
-134.000000 -1456.000000 30.000000
-136.000000 -1456.000000 30.000000
-138.000000 -1456.000000 30.000000
-140.000000 -1456.000000 30.000000
-142.000000 -1456.000000 30.000000
-144.000000 -1456.000000 30.000000
-146.000000 -1456.000000 30.000000
-148.000000 -1456.000000 30.000000
-150.000000 -1456.000000 30.000000
-152.000000 -1456.000000 30.000000
-154.000000 -1456.000000 30.000000
-156.000000 -1456.000000 30.000000
-158.000000 -1456.000000 30.000000
-160.000000 -1456.000000 30.000000
-162.000000 -1456.000000 30.000000
-164.000000 -1456.000000 30.000000
-166.000000 -1456.000000 30.000000
-168.000000 -1456.000000 30.000000
-170.000000 -1456.000000 30.000000
-172.000000 -1456.000000 30.000000
-174.000000 -1456.000000 30.000000
-176.000000 -1456.000000 30.000000
-178.000000 -1456.000000 30.000000
-180.000000 -1456.000000 30.000000
-182.000000 -1456.000000 30.000000
-184.000000 -1456.000000 30.000000
-186.000000 -1456.000000 30.000000
-188.000000 -1456.000000 30.000000
-190.000000 -1456.000000 30.000000
-192.000000 -1456.000000 30.000000
-194.000000 -1456.000000 30.000000
-196.000000 -1456.000000 30.000000
-198.000000 -1456.000000 30.000000
-200.000000 -1456.000000 30.000000
-202.000000 -1456.000000 30.000000
-204.000000 -1456.000000 30.000000
-206.000000 -1456.000000 30.000000
-208.000000 -1456.000000 30.000000
-210.000000 -1456.000000 30.000000
-212.000000 -1456.000000 30.000000
-214.000000 -1456.000000 30.000000
-218.000000 -1456.000000 30.000000
-219.935643 -1456.138260 30.483911
-221.871286 -1456.276520 30.967822
-223.806929 -1456.414781 31.451732
-225.742573 -1456.553041 31.935643
-227.678216 -1456.691301 32.419554
-229.613859 -1456.829561 32.903465
-231.549502 -1456.967822 33.387376
-233.485145 -1457.106082 33.871286
-235.420788 -1457.244342 34.355197
-237.356432 -1457.382602 34.839108
-239.292075 -1457.520862 35.323019
-241.227718 -1457.659123 35.806929
-243.163361 -1457.797383 36.290840
-245.099004 -1457.935643 36.774751
-247.034647 -1458.073903 37.258662
-248.970291 -1458.212164 37.742573
-250.905934 -1458.350424 38.226483
-252.841577 -1458.488684 38.710394
-254.777220 -1458.626944 39.194305
-256.712863 -1458.765205 39.678216
-258.648506 -1458.903465 40.162127
-260.584150 -1459.041725 40.646037
-262.519793 -1459.179985 41.129948
-264.455436 -1459.318245 41.613859
-266.391079 -1459.456506 42.097770
-268.326722 -1459.594766 42.581681
-270.262365 -1459.733026 43.065591
-274.000000 -1460.000000 44.000000
-275.891373 -1460.000000 44.650160
-277.782746 -1460.000000 45.300319
-279.674120 -1460.000000 45.950479
-281.565493 -1460.000000 46.600638
-283.456866 -1460.000000 47.250798
-285.348239 -1460.000000 47.900957
-287.239612 -1460.000000 48.551117
-289.130986 -1460.000000 49.201276
-291.022359 -1460.000000 49.851436
-292.913732 -1460.000000 50.501595
-294.805105 -1460.000000 51.151755
-296.696478 -1460.000000 51.801914
-298.587852 -1460.000000 52.452074
-300.479225 -1460.000000 53.102234
-302.370598 -1460.000000 53.752393
-304.261971 -1460.000000 54.402553
-306.153344 -1460.000000 55.052712
-308.044718 -1460.000000 55.702872
-309.936091 -1460.000000 56.353031
-311.827464 -1460.000000 57.003191
-313.718837 -1460.000000 57.653350
-315.610210 -1460.000000 58.303510
-317.501584 -1460.000000 58.953669
-319.392957 -1460.000000 59.603829
-321.284330 -1460.000000 60.253988
-323.175703 -1460.000000 60.904148
-325.067076 -1460.000000 61.554307
-326.958450 -1460.000000 62.204467
